ply
format ascii 1.0
comment Created by CloudCompare v2.11.1 (Anoia)
comment Created 2/18/23 16:51
obj_info Generated by CloudCompare!
element vertex 1469
property float x
property float y
property float z
end_header
-0.0718939 0.0749251 -0.0117733 
-0.015273 0.0338597 -0.0213119 
-0.0156706 0.0337901 -0.0217631 
-0.0716933 0.0772312 -0.0137291 
-0.0572157 0.0680441 -0.0124382 
-0.0572268 0.0678242 -0.0120922 
-0.0575186 0.0677849 -0.0119698 
-0.0159646 0.104984 -0.022535 
-0.0571723 0.0651195 -0.00856152 
-0.0576647 0.0652466 -0.00861963 
-0.0574999 0.107282 -0.0179944 
-0.057656 0.106007 -0.0182386 
-0.0578355 0.104185 -0.0185846 
-0.0744086 0.11449 -0.00639045 
-0.0574764 0.107907 -0.0178614 
-0.0575144 0.10572 -0.0183125 
-0.0573258 0.109147 -0.0175964 
-0.0579137 0.0945492 -0.0210452 
-0.0581999 0.094645 -0.0208235 
-0.0254826 0.033537 -0.0263012 
-0.0256746 0.0339433 -0.0270426 
-0.0254982 0.0343006 -0.0276378 
-0.057238 0.109128 -0.0176303 
-0.0719781 0.0724169 -0.00861789 
-0.0722336 0.0729957 -0.00924107 
-0.0720945 0.073001 -0.00939448 
-0.0717429 0.0730058 -0.00976923 
-0.0263153 0.157204 -0.00990075 
-0.0261774 0.157202 -0.00985772 
-0.057433 0.0716158 -0.0161949 
-0.057348 0.0717439 -0.0162873 
-0.0726086 0.072208 -0.0080282 
-0.0726332 0.0717755 -0.0075993 
-0.0571108 0.0978519 -0.0205352 
-0.0570044 0.098233 -0.0204042 
-0.071528 0.138165 -0.00743758 
-0.0719101 0.137523 -0.00740173 
-0.0578819 0.0936426 -0.0210827 
-0.0582856 0.0933499 -0.0207737 
-0.0527457 0.112387 -0.0172122 
-0.0575546 0.100351 -0.0193357 
0.0414594 0.0442168 -0.00249152 
0.0415258 0.0442496 -0.00247226 
0.0414992 0.043375 -0.00144406 
-0.0853371 0.120152 -0.0024151 
-0.0849855 0.119986 -0.00253541 
0.0419378 0.0455299 -0.00367661 
0.0414349 0.0457745 -0.00402935 
0.042113 0.0444521 -0.00221427 
0.042294 0.0443419 -0.00191612 
0.041943 0.0447835 -0.00278942 
0.0419374 0.0472384 -0.00491215 
0.0419556 0.0465943 -0.00449465 
0.0422724 0.0460227 -0.00400985 
0.0421597 0.0488251 -0.0058055 
0.0417008 0.0480504 -0.00542156 
0.0419098 0.0480358 -0.00538131 
0.0420771 0.0484593 -0.00559937 
0.0414952 0.049612 -0.00636746 
0.0416935 0.0492392 -0.00617101 
0.0422371 0.0498234 -0.00632612 
0.0421479 0.0519333 -0.00682089 
0.0418608 0.051213 -0.00676469 
0.0418706 0.0531838 -0.00681139 
0.0416771 0.0521129 -0.00684325 
0.0415839 0.0544476 -0.00656264 
0.0422466 0.0538782 -0.00670735 
0.041381 0.0560336 -0.00595925 
0.0414204 0.0547836 -0.00646754 
0.0421535 0.0573354 -0.00535504 
0.0417333 0.0564178 -0.00579517 
0.0417042 0.0583777 -0.00476455 
0.0419403 0.0583109 -0.00480847 
0.0420391 0.0577878 -0.00510211 
0.0421945 0.05863 -0.00465553 
-0.0200817 0.0883194 -0.0374411 
-0.0131665 0.106707 -0.0220589 
-0.0130592 0.107089 -0.0218857 
-0.0689209 0.0689511 -0.00654604 
-0.0693398 0.0687742 -0.00597966 
-0.0612529 0.144731 -0.00453229 
-0.0719194 0.129771 -0.00865871 
-0.0715249 0.130651 -0.00851073 
-0.0712465 0.129708 -0.00881745 
-0.0712156 0.129747 -0.0088139 
-0.0575325 0.102581 -0.0188617 
-0.071503 0.132525 -0.00816437 
-0.0570734 0.0999761 -0.0196574 
-0.0587357 0.0942268 -0.0204313 
-0.00954467 0.109667 -0.0215887 
-0.00988236 0.109619 -0.0215039 
-0.0550116 0.1305 -0.005455 
-0.0712559 0.125331 -0.00871723 
-0.0855423 0.111568 0.0258821 
-0.0855143 0.111407 0.0254972 
-0.0230176 0.038487 -0.006883 
-0.0230708 0.0384951 -0.00785623 
0.00332786 0.0918495 -0.0327881 
-0.0250859 0.0344085 -0.0277564 
-0.0244487 0.0346406 -0.0280512 
-0.0247565 0.0344494 -0.0277709 
-0.0249649 0.0337363 -0.026563 
-0.0246492 0.0348066 -0.0283753 
-0.029363 0.0334698 -0.0280511 
-0.0290371 0.0335709 -0.0280989 
-0.0291643 0.0334628 -0.0278301 
-0.0280672 0.0335973 -0.027241 
-0.0297227 0.0335255 -0.0286084 
-0.0282404 0.0341779 -0.029528 
-0.028861 0.0338039 -0.0287751 
-0.0754798 0.131204 0.0525893 
-0.0669656 0.0378561 -0.00631728 
-0.0674416 0.0375206 -0.00609066 
-0.069065 0.139543 -0.00786894 
-0.0683135 0.137815 -0.00803012 
-0.0216788 0.03822 0.0061212 
-0.022125 0.0382348 0.00610234 
-0.0746961 0.125962 -0.00816227 
-0.0416981 0.106749 -0.0202229 
-0.0379005 0.0345161 0.0382223 
-0.0569945 0.0688055 -0.0136194 
-0.0567876 0.0685475 -0.0132515 
-0.0528585 0.0939391 -0.0218332 
-0.057095 0.0709622 -0.0157185 
-0.057272 0.066833 -0.0107125 
-0.0574136 0.0668423 -0.0106762 
-0.0572713 0.0667273 -0.010562 
-0.0199252 0.0341253 -0.0264415 
-0.0198584 0.034353 -0.0269088 
-0.0200331 0.0340948 -0.0264026 
-0.0668453 0.0408473 -0.00445004 
-0.0671088 0.0407057 -0.00430124 
-0.0546518 0.12841 -0.005493 
-0.0576303 0.110337 -0.0171163 
-0.057781 0.11046 -0.0170156 
-0.0288269 0.0467933 -0.0264188 
-0.0289163 0.0474156 -0.0256817 
-0.0571532 0.110377 -0.0172734 
-0.0411795 0.16072 -0.0111945 
-0.0708628 0.034547 0.00851288 
-0.0548956 0.044772 -0.00728796 
-0.0605187 0.12077 -0.00916904 
-0.071893 0.139571 -0.0073588 
-0.0718065 0.138698 -0.00734071 
-0.0209378 0.03446 -0.0272598 
-0.0204857 0.0346418 -0.0275787 
-0.0207906 0.033773 -0.0258827 
-0.0216602 0.0346428 -0.0276896 
-0.0216965 0.0342756 -0.0269643 
-0.0211596 0.034048 -0.0264628 
-0.0623886 0.0337472 -0.00826315 
-0.0709832 0.138267 -0.00756328 
-0.0391793 0.0346629 -0.0294843 
-0.0395333 0.0345651 -0.029489 
-0.0387198 0.0338403 -0.0295866 
-0.0173782 0.184248 -0.0245695 
-0.0179565 0.184448 -0.0238436 
-0.0174407 0.18431 -0.0244723 
-0.0180552 0.184585 -0.0236722 
-0.0713682 0.134578 -0.00804468 
-0.00874034 0.125359 0.0310662 
-0.00928767 0.126123 0.0297119 
-0.00960836 0.125592 0.0304206 
-0.0645766 0.0444316 -0.000778166 
-0.0225351 0.0385262 -0.0087868 
-0.0223621 0.0385862 -0.00965823 
0.0115193 0.03675 -0.0222867 
-0.0629146 0.145896 -0.0109976 
-0.0525561 0.11029 -0.0182377 
-0.0523432 0.109981 -0.018413 
-0.0381716 0.0344262 0.033224 
-0.0380045 0.0344482 0.0338601 
-0.0100773 0.110011 -0.0211833 
-0.0106189 0.109263 -0.0215169 
-0.0356301 0.081532 -0.0224309 
-0.0352268 0.0821369 -0.0230774 
0.0406692 0.0440277 -0.00296199 
0.0404749 0.043977 -0.00305501 
0.0404775 0.0439343 -0.00301123 
0.0413128 0.0439811 -0.0023514 
0.0412302 0.0433283 -0.00167036 
0.0412318 0.0435061 -0.0018796 
0.0413072 0.0428869 -0.00105877 
0.0407703 0.0453455 -0.00402133 
0.0404207 0.044738 -0.0037626 
0.0413634 0.0456548 -0.00395073 
0.041046 0.0452805 -0.00384766 
0.0410022 0.047035 -0.00496383 
0.0405237 0.0468669 -0.00494674 
0.0412226 0.0464721 -0.00456671 
0.041366 0.0467253 -0.00468165 
0.0408071 0.0488366 -0.00606667 
0.0404658 0.0484798 -0.00587848 
0.0413607 0.0485154 -0.0058048 
0.0411646 0.0504366 -0.0066829 
0.0406292 0.0493841 -0.00635425 
0.040953 0.0499934 -0.00654961 
0.0411208 0.0516774 -0.00682491 
0.0410286 0.0507514 -0.00673737 
0.0412909 0.0525081 -0.00683261 
0.0406795 0.0521837 -0.00683075 
0.0407696 0.0542342 -0.00655862 
0.0405511 0.0547019 -0.00643659 
0.0408943 0.0535149 -0.00674083 
0.0406064 0.0551903 -0.0062452 
0.0406681 0.0552834 -0.00621113 
0.0412512 0.0558503 -0.00602514 
0.0413441 0.054879 -0.0064241 
0.0412335 0.057451 -0.00521616 
0.0406942 0.057431 -0.00517967 
0.0408834 0.0566579 -0.00558214 
0.041293 0.0564369 -0.00574863 
0.0411604 0.0584152 -0.00474241 
0.0409478 0.0582479 -0.0048426 
0.0406373 0.0580313 -0.00493678 
0.0260041 0.0891239 -0.0228199 
0.015457 0.0851521 -0.029468 
-0.0715739 0.121258 -0.00853996 
-0.0717425 0.12089 -0.00852412 
-0.0410413 0.102976 -0.0209069 
-0.0469021 0.102388 -0.0213487 
-0.0471684 0.101898 -0.0214525 
-0.07093 0.123464 -0.00862316 
-0.00594056 0.104335 -0.0229696 
-0.0318304 0.0338161 0.0129115 
-0.0325035 0.0337355 0.0140167 
-0.0783319 0.112837 -0.00336873 
-0.0792071 0.113111 -0.00280389 
-0.0713296 0.127722 -0.00896286 
-0.0197163 0.0386892 -0.0152064 
-0.0500066 0.0764936 -0.0183486 
-0.0506312 0.0760764 -0.0182887 
-0.0713367 0.127161 -0.00891796 
-0.0744449 0.127362 -0.00831123 
-0.0746075 0.12694 -0.00826786 
-0.0500137 0.0797421 -0.0201946 
-0.0590234 0.121395 -0.00906767 
-0.0743661 0.129515 -0.00812466 
-0.0745366 0.12931 -0.00811512 
-0.0586594 0.124735 -0.00777707 
0.0440537 0.0591977 -0.00464704 
-0.0748781 0.124397 -0.00795333 
-0.0741502 0.123803 -0.00800128 
-0.0740927 0.12574 -0.00827373 
-0.0626222 0.129245 -0.008193 
-0.0623448 0.128897 -0.00814337 
-0.0623803 0.130088 -0.00808601 
-0.0744057 0.12761 -0.00832292 
-0.0744589 0.133894 -0.00738866 
-0.0854635 0.118306 -0.00115792 
-0.0853271 0.117987 -0.0010314 
-0.074635 0.129879 -0.00797822 
-0.0744317 0.129873 -0.0080295 
-0.0585938 0.111018 -0.0164469 
-0.0745567 0.113398 -0.00644798 
-0.0568945 0.0843652 -0.0213635 
-0.0581004 0.109852 -0.0171019 
-0.0300022 0.0344979 0.0174895 
-0.0302485 0.0343608 0.017692 
-0.0295208 0.034892 0.0174753 
-0.0626552 0.0410683 -0.00686166 
-0.0633258 0.040084 -0.00712627 
-0.0029494 0.108606 -0.0218763 
-0.00339246 0.108281 -0.022128 
-0.067103 0.0653562 -0.00431028 
-0.0671397 0.0651281 -0.00409496 
0.0048012 0.101328 -0.0218382 
-0.0731683 0.0843227 -0.0156424 
-0.0842492 0.0776591 0.0178008 
-0.00878028 0.0361407 -0.0252373 
-0.00905995 0.0368899 -0.0255102 
-0.0714178 0.139245 -0.00742328 
-0.0714175 0.138773 -0.00743293 
-0.0688494 0.0394669 -0.00161538 
-0.0718069 0.141176 -0.00781363 
-0.0712579 0.140805 -0.00782835 
-0.0713055 0.139964 -0.007481 
-0.0691656 0.0365489 -0.00457385 
-0.0689904 0.0366821 -0.00478356 
-0.0692884 0.0358795 -0.00450024 
-0.0694233 0.0357305 -0.00431486 
-0.0415792 0.100359 -0.0214295 
-0.0624071 0.103799 -0.0178936 
-0.062764 0.102816 -0.0179963 
-0.0715475 0.136951 -0.00755037 
-0.0747446 0.111424 -0.0073933 
-0.0745881 0.111176 -0.00765017 
-0.0748118 0.11111 -0.00750962 
-0.0715015 0.132589 -0.00815611 
-0.0710274 0.132803 -0.00823782 
-0.0717468 0.135547 -0.00776179 
-0.0711892 0.131215 -0.00844558 
-0.0710644 0.135366 -0.00803871 
-0.071064 0.12655 -0.0088934 
-0.0717707 0.133933 -0.00801466 
-0.0782264 0.114192 -0.00417049 
-0.0786456 0.114735 -0.00422629 
-0.0709634 0.122377 -0.00861026 
-0.0717722 0.123195 -0.00849038 
-0.0784214 0.113923 -0.00387353 
-0.0786159 0.113849 -0.00368028 
-0.0784512 0.116219 -0.00505756 
-0.0783913 0.114895 -0.00444797 
0.00285277 0.101955 -0.0221902 
0.00248743 0.102683 -0.0221409 
-0.0786394 0.117462 -0.00536835 
0.0396345 0.0436857 -0.00332843 
0.0398533 0.0438824 -0.00338557 
0.0403088 0.0433499 -0.00256424 
0.0402281 0.043849 -0.00311355 
0.0396907 0.0451731 -0.00433073 
0.0397119 0.0459205 -0.0046909 
0.0400321 0.0449473 -0.00405418 
0.0394293 0.0467591 -0.00522262 
0.0400513 0.0469726 -0.00513003 
0.0403765 0.0467259 -0.00489564 
0.0401353 0.0490172 -0.00625222 
0.0399303 0.047875 -0.00566819 
0.0400176 0.0484815 -0.00599724 
0.0400283 0.0501381 -0.00660904 
0.0398669 0.0491487 -0.00633437 
0.0399594 0.0495291 -0.00644047 
0.0397228 0.0513338 -0.00676338 
0.0396363 0.0505621 -0.00669134 
0.0401054 0.0510031 -0.00674516 
0.039885 0.0528216 -0.0067573 
0.0398028 0.052977 -0.00673703 
0.0397274 0.0524337 -0.00678472 
0.0396024 0.0544721 -0.00636238 
0.0403734 0.0542358 -0.00653451 
0.0402758 0.0561097 -0.00579225 
0.0400845 0.0560504 -0.00579528 
0.0399138 0.0552953 -0.00608665 
0.0399513 0.0568599 -0.00545122 
0.0397951 0.0574972 -0.0051429 
0.0398032 0.0565553 -0.00558313 
0.0135559 0.101585 -0.0222776 
0.0413774 0.0592935 -0.00432512 
-0.0401742 0.169168 -0.011032 
-0.0696134 0.178872 -0.0577022 
-0.069735 0.178443 -0.0574629 
-0.0784954 0.116761 -0.00522706 
-0.0782262 0.116423 -0.00527727 
-0.0779436 0.118516 -0.00615634 
-0.078487 0.118175 -0.00570388 
-0.0787641 0.118877 -0.00574004 
-0.0783191 0.120116 -0.00630238 
-0.0786893 0.119919 -0.00603532 
-0.0785531 0.119436 -0.00602927 
-0.0784779 0.122022 -0.00630854 
-0.0782354 0.120936 -0.0064361 
-0.0780827 0.122655 -0.00655082 
-0.0715904 0.116993 -0.00795366 
-0.0783461 0.122453 -0.00638812 
-0.0788601 0.123267 -0.00614501 
-0.0711277 0.129568 -0.00886992 
-0.0718894 0.129453 -0.00873093 
-0.0709677 0.118452 -0.00830737 
-0.0691664 0.0715168 -0.0103249 
-0.0690423 0.0715315 -0.010426 
-0.0711009 0.128409 -0.00901083 
-0.0693941 0.0706856 -0.00857613 
-0.0695352 0.0717545 -0.0102774 
-0.0691991 0.0709143 -0.00932433 
-0.0689826 0.0708148 -0.00951281 
-0.0690503 0.0710909 -0.0098989 
-0.0694258 0.0731178 -0.0119619 
-0.0692306 0.0728476 -0.0117868 
-0.0618927 0.0942135 -0.0188758 
-0.0624025 0.0929543 -0.0189191 
-0.0620525 0.120599 -0.00904659 
-0.0626682 0.122303 -0.00881521 
-0.0625311 0.133801 -0.00757181 
-0.0625222 0.133458 -0.00766002 
-0.0626928 0.132626 -0.0078777 
-0.0629691 0.132574 -0.00794856 
-0.0624435 0.131401 -0.00802045 
-0.0629443 0.128811 -0.0082994 
-0.0628077 0.128799 -0.00826611 
-0.0624721 0.130499 -0.00809831 
-0.0621107 0.127756 -0.00818275 
-0.0627991 0.12719 -0.0084419 
-0.0628624 0.127447 -0.00842214 
-0.0625751 0.126391 -0.00851604 
-0.0621668 0.12637 -0.00840515 
-0.0626244 0.125399 -0.00864932 
-0.0626162 0.12551 -0.00863639 
-0.0628968 0.1166 -0.0108533 
-0.063416 0.117147 -0.0102433 
-0.0619397 0.118636 -0.00992414 
-0.0619 0.11899 -0.00971974 
-0.00274835 0.0342056 -0.0182573 
-0.00303561 0.0343695 -0.0177765 
-0.0207919 0.0386874 -0.0137879 
-0.0205154 0.038676 -0.0133133 
-0.021273 0.0386727 -0.0114852 
-0.0217918 0.0386435 -0.0111618 
0.0258863 0.0492413 -0.0197011 
-0.0506374 0.0788195 -0.0195968 
-0.0659493 0.119645 -0.00885787 
-0.0666034 0.121413 -0.00892293 
-0.0506718 0.0826085 -0.021457 
-0.0078079 0.0387431 -0.000551346 
-0.0195142 0.03354 -0.0246506 
-0.0190835 0.0335201 -0.02462 
-0.0695158 0.0376662 -0.00199148 
-0.0687191 0.0378287 -0.00415225 
-0.0695349 0.0377083 -0.00184249 
-0.0690877 0.0374195 -0.00386014 
-0.0688221 0.0377424 -0.00401125 
-0.0688102 0.0374243 -0.00452219 
-0.068556 0.0368266 -0.00533579 
-0.0265678 0.0917219 -0.0315809 
-0.0254128 0.0927779 -0.0313114 
-0.0258939 0.0924241 -0.031274 
-0.0687542 0.0391566 -0.00198558 
-0.0686317 0.0384625 -0.00335307 
-0.0693886 0.0380628 -0.00167097 
-0.0686771 0.0392636 -0.00206136 
-0.0684784 0.0384892 -0.00377218 
-0.0624546 0.103079 -0.0180537 
-0.0625056 0.103014 -0.0180495 
-0.062749 0.104626 -0.0174155 
-0.062501 0.104576 -0.0175424 
-0.0601505 0.0370085 -0.00925463 
-0.0597689 0.0369731 -0.00939238 
-0.0621593 0.0997069 -0.018242 
-0.062705 0.0998894 -0.018086 
-0.0701959 0.0690904 -0.00572765 
-0.0701447 0.0687511 -0.00532965 
-0.0748518 0.125244 -0.00805893 
-0.0742587 0.124954 -0.00814029 
-0.0733659 0.09062 -0.0152572 
-0.0737934 0.0903922 -0.0151046 
-0.0741177 0.123358 -0.00798642 
-0.0748096 0.123352 -0.00785445 
-0.0747493 0.122656 -0.00779486 
-0.0709872 0.12438 -0.00866716 
-0.0709299 0.12517 -0.00874128 
-0.0148974 0.185687 -0.024901 
-0.071293 0.117615 -0.00812745 
-0.0716534 0.124328 -0.0085695 
-0.0782332 0.125144 -0.00667695 
-0.0783487 0.124539 -0.00657593 
-0.0713201 0.114189 -0.00828442 
-0.0782344 0.123856 -0.00660786 
-0.0787685 0.124593 -0.00629731 
0.0385243 0.0428151 -0.00317003 
0.0384966 0.0423905 -0.00279841 
0.038785 0.042161 -0.00244666 
-0.0281352 0.0733511 -0.0348137 
-0.028126 0.0734365 -0.0348537 
0.0387213 0.044312 -0.00418041 
0.0383974 0.0434736 -0.00371706 
0.0393214 0.0432984 -0.0031666 
0.0389971 0.0434993 -0.00348774 
0.0385576 0.0452094 -0.00473112 
0.0386534 0.0453025 -0.00474382 
0.0392908 0.0452748 -0.00450997 
0.0387402 0.0450331 -0.00457261 
0.0387297 0.0468132 -0.00548901 
0.0387859 0.0461376 -0.00512932 
0.0389481 0.0468191 -0.0054317 
0.0386864 0.048366 -0.00615312 
0.038832 0.0485104 -0.0061936 
0.0391281 0.0478634 -0.00586103 
0.0384409 0.0496205 -0.0064888 
0.0389094 0.0496295 -0.00650786 
0.0392356 0.0509368 -0.00670096 
0.0385496 0.0514964 -0.00668222 
0.0387357 0.05333 -0.00659678 
0.0388384 0.0522905 -0.0067188 
0.039286 0.0525881 -0.00673743 
0.0386925 0.0545668 -0.00620222 
0.0393424 0.0537677 -0.00653946 
0.0385646 0.0533817 -0.00656579 
0.0392295 0.0560579 -0.00571908 
0.0387852 0.0560784 -0.00573003 
0.038538 0.0552394 -0.00600115 
0.0383536 0.0549088 -0.0060588 
0.0386931 0.0574238 -0.00544281 
0.0386566 0.0567905 -0.00564408 
0.0385485 0.0561774 -0.0057041 
-0.0263283 0.0405014 -0.0293066 
-0.0784182 0.126391 -0.00661596 
-0.0786815 0.12648 -0.00643199 
-0.0781504 0.125493 -0.00673916 
-0.0788369 0.126135 -0.00631344 
-0.0709734 0.107609 -0.0114059 
-0.0710203 0.107126 -0.0115945 
-0.0781155 0.127957 -0.00672902 
-0.0784964 0.128053 -0.00642573 
-0.07144 0.121857 -0.00854523 
-0.0710708 0.122184 -0.00859664 
-0.0714224 0.115691 -0.00795041 
-0.071454 0.118259 -0.00820813 
-0.0709169 0.119962 -0.00855397 
-0.0696897 0.0749517 -0.0136249 
-0.0695162 0.075586 -0.0142918 
-0.0714583 0.120044 -0.0084806 
-0.0695408 0.0724203 -0.0110671 
-0.0691528 0.0720685 -0.0109316 
-0.0687318 0.0749049 -0.0145531 
-0.0693397 0.074816 -0.0138468 
-0.0693461 0.0741008 -0.0131073 
-0.0696423 0.0744993 -0.013226 
-0.0695777 0.0737555 -0.0125436 
-0.0690092 0.0761625 -0.0151287 
-0.0622963 0.0935067 -0.0188993 
-0.0624074 0.0896135 -0.0190319 
-0.0628389 0.0948839 -0.0186198 
-0.0836262 0.122934 -0.00387398 
-0.0594111 0.101381 -0.0188052 
-0.0594953 0.101309 -0.0187997 
-0.0598 0.112145 -0.0154411 
-0.0595772 0.111691 -0.0157304 
-0.0593309 0.100357 -0.0189107 
-0.0595953 0.103849 -0.0184884 
-0.0598095 0.10325 -0.0185637 
-0.0592281 0.103071 -0.0186558 
-0.0593102 0.103193 -0.0186286 
-0.0594495 0.10187 -0.0187543 
-0.0594642 0.104254 -0.0184139 
-0.0590175 0.105371 -0.0181611 
-0.0595651 0.104777 -0.0182524 
-0.0592844 0.105914 -0.017935 
-0.0597477 0.106595 -0.0175655 
-0.0596023 0.106534 -0.0176272 
-0.0596321 0.107215 -0.0174012 
-0.0590959 0.10822 -0.0172886 
-0.0596728 0.107885 -0.0171803 
-0.0640031 0.114016 -0.0123247 
-0.0627319 0.118726 -0.00960334 
-0.0627792 0.118308 -0.00981223 
-0.039938 0.0807456 -0.0200914 
-0.0397789 0.0809776 -0.0201904 
-0.00755007 0.0351442 -0.0246554 
-0.00772567 0.0357088 -0.0249231 
-0.00775578 0.0354667 -0.0248206 
-0.066165 0.168682 -0.0587115 
-0.0612232 0.114258 -0.0135881 
-0.0611868 0.113861 -0.01387 
-0.0699676 0.153776 -0.0491073 
-0.0697958 0.154844 -0.0498813 
-0.0570075 0.0835147 -0.0212961 
-0.0572098 0.0832901 -0.0212324 
-0.0621648 0.112187 -0.014393 
-0.0626287 0.112462 -0.0140082 
-0.0627687 0.12068 -0.00891257 
-0.062636 0.119866 -0.0091193 
-0.062589 0.111012 -0.0147543 
-0.0624718 0.110457 -0.0150255 
-0.0623485 0.111654 -0.0145641 
-0.0628223 0.111164 -0.0145773 
-0.0627077 0.108897 -0.0155045 
-0.0626001 0.110023 -0.0151392 
-0.062909 0.109653 -0.0151381 
-0.0621278 0.107905 -0.0162153 
-0.0629115 0.107549 -0.0159052 
-0.0620878 0.108474 -0.0160123 
-0.0619388 0.104864 -0.0176475 
-0.0619562 0.104151 -0.0179634 
-0.0624786 0.10691 -0.016375 
-0.0625982 0.107065 -0.0162683 
-0.0626516 0.106597 -0.0164457 
-0.0620205 0.105504 -0.0173176 
-0.0622859 0.106303 -0.0167875 
-0.06225 0.102025 -0.0183189 
-0.0623419 0.101904 -0.0183013 
-0.0599066 0.127871 -0.0075772 
-0.0599153 0.127749 -0.00760262 
-0.0627291 0.0992125 -0.0179513 
-0.0627715 0.0990797 -0.0179084 
-0.062262 0.10117 -0.0183754 
-0.0627123 0.0970675 -0.0178969 
-0.062223 0.101056 -0.0183836 
-0.0620976 0.0901286 -0.0190161 
-0.0623322 0.0989107 -0.018026 
-0.0690194 0.0788883 -0.0162864 
-0.0687945 0.0792859 -0.0165412 
-0.0620489 0.0889539 -0.0190958 
-0.0689764 0.0772069 -0.0156764 
-0.0694643 0.0787657 -0.0159902 
-0.0692602 0.0781476 -0.0158818 
-0.0714694 0.115955 -0.00792333 
-0.0709552 0.115349 -0.00812065 
-0.0696772 0.0774217 -0.015282 
-0.0780956 0.127312 -0.00680802 
-0.0780984 0.126747 -0.00686021 
-0.0718467 0.107404 -0.0110501 
-0.0717265 0.107328 -0.0111502 
-0.0785383 0.129007 -0.00620519 
-0.0783597 0.129488 -0.0062444 
-0.0329999 0.0619687 -0.0148899 
0.0377329 0.0424412 -0.00316991 
0.0374785 0.0422676 -0.0031158 
0.0383812 0.0422034 -0.00268554 
0.0381182 0.0415373 -0.00220415 
0.0376851 0.0436603 -0.00409043 
0.0380507 0.0437678 -0.00404388 
0.0379513 0.0430307 -0.00357849 
0.0378091 0.0457559 -0.00523101 
0.0378485 0.0456016 -0.00514013 
0.0379108 0.0452305 -0.00493048 
0.0377507 0.0471036 -0.00584414 
0.0381416 0.0468801 -0.005661 
0.0377734 0.0486836 -0.00632764 
0.0379193 0.0479051 -0.00611108 
0.0376684 0.0478749 -0.00615261 
0.0377865 0.0501041 -0.00652896 
0.0383559 0.0501752 -0.00654972 
0.0381312 0.0518933 -0.00669021 
0.0375145 0.0511553 -0.00662315 
0.038368 0.0507683 -0.00661158 
0.0378478 0.0530054 -0.00654827 
0.0380856 0.0521883 -0.00666653 
0.0382634 0.0545052 -0.00618658 
0.0379866 0.0542096 -0.00631006 
0.0377074 0.0534863 -0.00645505 
0.0378841 0.0554994 -0.00609392 
0.0377673 0.0555506 -0.00612432 
0.0377021 0.0548582 -0.00615243 
-0.016707 0.103158 -0.0231933 
-0.017134 0.103387 -0.0231323 
0.038229 0.0573102 -0.00566666 
-0.078623 0.128542 -0.0062369 
-0.0782119 0.130679 -0.00597781 
-0.0780974 0.13084 -0.00601516 
-0.0781085 0.130441 -0.00613728 
-0.0779836 0.129695 -0.00648556 
-0.0789279 0.13106 -0.00538877 
-0.0787002 0.13227 -0.00541958 
-0.0718224 0.108326 -0.0106514 
-0.071425 0.108829 -0.0106428 
-0.0780935 0.131856 -0.00589091 
-0.0782281 0.132009 -0.00578339 
-0.0695424 0.0813828 -0.016899 
-0.0696242 0.0810486 -0.0167642 
-0.0713413 0.108477 -0.010832 
-0.0688479 0.0800952 -0.0167874 
-0.0694072 0.0801184 -0.0165412 
-0.0691229 0.082844 -0.0173144 
-0.0689827 0.082835 -0.0173768 
-0.0694527 0.0818452 -0.017073 
-0.068927 0.0815813 -0.0171856 
-0.0624354 0.0863299 -0.019154 
-0.0692755 0.0825904 -0.0172423 
-0.0627591 0.0914813 -0.0189537 
-0.0620386 0.0854331 -0.0192487 
-0.0621424 0.09177 -0.0189921 
-0.0830616 0.121376 -0.00392323 
-0.0757396 0.12431 -0.00774263 
-0.0754509 0.129764 -0.00775116 
-0.0752309 0.129941 -0.00778545 
-0.0577628 0.0617972 -0.00444373 
-0.0580068 0.0625247 -0.00541567 
-0.0577643 0.0621475 -0.00494461 
-0.0417935 0.0996996 -0.0214532 
-0.0413049 0.159456 -0.0107981 
-0.0409916 0.0884997 -0.0224003 
-0.0414631 0.0886866 -0.0222858 
-0.0497103 0.0713102 -0.0152407 
-0.0501387 0.0683018 -0.0137404 
-0.0503996 0.0689294 -0.0140928 
-0.0497561 0.063977 -0.0118974 
-0.00171682 0.0365915 0.00909758 
-0.00133895 0.0362354 0.00879857 
-0.0501592 0.0661246 -0.012582 
-0.0497228 0.0654456 -0.0124956 
-0.0505509 0.0632031 -0.0112091 
-0.0735815 0.106272 -0.010512 
-0.0729816 0.106447 -0.0108294 
-0.0753731 0.0909895 -0.0142092 
-0.0757118 0.0915869 -0.0139808 
-0.0475743 0.0849033 -0.0216946 
-0.0468476 0.0831648 -0.0211955 
-0.0468384 0.0838976 -0.0214482 
-0.0474073 0.0843318 -0.0215945 
-0.046932 0.0868804 -0.0219657 
-0.0472737 0.0867521 -0.021922 
-0.0477575 0.0881235 -0.0219183 
-0.0473526 0.088223 -0.0219614 
-0.0473951 0.08595 -0.0218499 
0.0230542 0.0844773 -0.0255663 
0.0225609 0.0842472 -0.0258381 
-0.0474537 0.0837808 -0.0214579 
-0.0471719 0.0835681 -0.0213703 
0.0106553 0.100129 -0.0224664 
-0.058957 0.112328 -0.0156844 
-0.0223054 0.107854 -0.0217819 
-0.0227793 0.107761 -0.02172 
-0.00123764 0.0362397 0.00832701 
-0.00149232 0.0366974 0.00788264 
-0.0590285 0.113034 -0.0152719 
-0.059229 0.113511 -0.0149157 
-0.0576439 0.0416404 -0.00830901 
-0.0576476 0.0418531 -0.00816654 
-0.0690125 0.0390767 -0.00160019 
-0.0340876 0.039874 -0.0299922 
-0.033873 0.0403785 -0.0299391 
-0.0592378 0.124996 -0.00792014 
-0.0590884 0.124432 -0.00799548 
-0.0599323 0.124527 -0.00823461 
-0.059364 0.123837 -0.00820746 
-0.0590364 0.125327 -0.00778797 
-0.0594971 0.126007 -0.00780162 
-0.0591657 0.125441 -0.00780656 
-0.0591381 0.127694 -0.00733773 
-0.0590764 0.127129 -0.0074408 
-0.0596345 0.12952 -0.00727651 
-0.0592261 0.128871 -0.00718529 
-0.0597184 0.128288 -0.00743394 
-0.0597433 0.129112 -0.00736992 
-0.0591483 0.131072 -0.00703311 
-0.0597367 0.131108 -0.00723916 
-0.0594495 0.131554 -0.00709526 
-0.0597292 0.130606 -0.00724443 
-0.0592277 0.132161 -0.00693438 
-0.0595702 0.133586 -0.00677144 
-0.0596215 0.132768 -0.00698762 
-0.0627375 0.0887573 -0.0190456 
-0.0592096 0.134969 -0.00639454 
-0.0595824 0.134994 -0.00654623 
-0.0625674 0.0783151 -0.0183744 
-0.0625082 0.078941 -0.018597 
-0.0618784 0.0808393 -0.0191852 
-0.0688262 0.0838108 -0.0175596 
-0.0688832 0.0921774 -0.0164738 
-0.0716738 0.106244 -0.0116666 
-0.0714121 0.105928 -0.0119186 
-0.0712057 0.105454 -0.0122368 
-0.0710448 0.105438 -0.0123289 
-0.078791 0.133731 -0.00523203 
-0.0783664 0.133476 -0.00548905 
-0.0709404 0.104304 -0.0128877 
-0.078195 0.133009 -0.00567324 
0.0373496 0.0413685 -0.00239604 
0.0364551 0.0409604 -0.00226135 
0.0366079 0.0571523 -0.00857158 
0.0371387 0.0573213 -0.00779938 
0.0365161 0.0418426 -0.00306765 
0.0365234 0.0423932 -0.00346933 
0.0373136 0.042072 -0.00301063 
0.0366559 0.043408 -0.00414061 
0.0367771 0.0442734 -0.00465107 
0.0373623 0.0444845 -0.00467711 
0.036641 0.0456153 -0.00546988 
0.0368713 0.045686 -0.00543706 
0.0372699 0.0458557 -0.0054151 
0.0364611 0.04461 -0.0049087 
0.0368511 0.0476014 -0.0061842 
0.0364081 0.0475316 -0.00621914 
0.0370376 0.0465556 -0.00582303 
0.0373832 0.0463446 -0.00562082 
0.0365919 0.0482036 -0.00630891 
0.0364185 0.0487122 -0.00637627 
0.0371613 0.0487314 -0.00635088 
0.037383 0.0479964 -0.00619456 
0.0370654 0.0501631 -0.00654172 
0.0367599 0.049874 -0.00651025 
0.0371511 0.0493501 -0.00643133 
0.0363973 0.0516308 -0.00661856 
0.0373819 0.0513862 -0.0066317 
0.0370741 0.0532514 -0.00649528 
0.036965 0.0523612 -0.00663857 
0.0366859 0.0547286 -0.00657904 
0.0365149 0.0540812 -0.00664245 
0.0365477 0.0541697 -0.0066497 
-0.0731383 0.146252 -0.0175161 
-0.0735046 0.146836 -0.0175983 
-0.0731891 0.146401 -0.0176893 
-0.0730975 0.145608 -0.0161158 
0.037102 0.0548459 -0.0062998 
-0.0710873 0.112635 -0.00917865 
-0.0710658 0.112458 -0.00928778 
-0.0714183 0.114286 -0.00819041 
-0.0712427 0.111469 -0.00966063 
-0.0709434 0.111742 -0.00970077 
-0.0712904 0.1131 -0.00880093 
-0.0715241 0.110098 -0.0100925 
-0.0712316 0.109465 -0.0104843 
-0.071362 0.109715 -0.0103252 
-0.068971 0.08831 -0.0170025 
-0.0717973 0.1116 -0.00926936 
-0.0625921 0.0797923 -0.0188453 
-0.0695729 0.0904391 -0.0165853 
0.0248844 0.0587812 -0.0242236 
-0.0623229 0.083883 -0.0192773 
-0.0627304 0.0849905 -0.0191407 
-0.0756374 0.127824 -0.00798046 
-0.0755401 0.127599 -0.0080247 
-0.0619156 0.0877604 -0.0191871 
-0.0447375 0.0353821 0.0435237 
-0.0626198 0.0872205 -0.0191024 
-0.0624948 0.087247 -0.0191277 
-0.0399033 0.163255 -0.0121028 
-0.0405463 0.0815553 -0.0204303 
-0.0405368 0.0817403 -0.0204952 
-0.0405947 0.155703 -0.00937904 
-0.059825 0.135032 -0.00663503 
-0.0409708 0.0515292 -0.0110893 
-0.0407112 0.0557963 -0.0113044 
-0.0834022 0.11983 -0.00332219 
-0.0837585 0.119243 -0.0029181 
-0.0399874 0.0728485 -0.0175971 
-0.0422725 0.0933633 -0.0228299 
-0.0636868 0.115136 -0.0115538 
-0.0633165 0.115849 -0.0112033 
-0.0544298 0.0408438 -0.0099664 
-0.0542536 0.0404359 -0.0102538 
-0.0541204 0.0418198 -0.0095309 
-0.0539191 0.0428114 -0.00901564 
-0.0543533 0.0419465 -0.00938623 
-0.0539942 0.043723 -0.00836923 
-0.0544178 0.0436643 -0.00823169 
-0.0542895 0.0438666 -0.00815012 
-0.0268818 0.107046 -0.0217312 
-0.0749732 0.0966183 -0.0135736 
-0.0567243 0.112122 -0.0165937 
-0.0567877 0.111436 -0.016963 
-0.0560989 0.111457 -0.0170952 
-0.0565858 0.111538 -0.0169531 
-0.0563707 0.109452 -0.0177678 
-0.0564344 0.10917 -0.0178268 
-0.0560178 0.108865 -0.0179795 
-0.0562491 0.108457 -0.0180363 
-0.0559179 0.105978 -0.0184131 
-0.0567842 0.107818 -0.0180377 
-0.056366 0.107768 -0.0181203 
-0.0566919 0.104557 -0.0185788 
-0.0562788 0.107203 -0.0181884 
-0.0562358 0.104503 -0.0186958 
-0.0559602 0.105132 -0.0185824 
-0.056871 0.106569 -0.0182032 
-0.0566318 0.110278 -0.0174534 
-0.0559084 0.111187 -0.0172722 
-0.0563999 0.110445 -0.0174395 
-0.0561538 0.104062 -0.0188522 
-0.0506301 0.071573 -0.0154389 
-0.056774 0.101869 -0.0191975 
-0.0568621 0.101325 -0.0192869 
-0.0565612 0.102781 -0.0190613 
-0.0565999 0.101064 -0.0195412 
-0.055965 0.102359 -0.0194576 
-0.056045 0.101606 -0.0196972 
-0.0567611 0.0996779 -0.0199289 
-0.0562342 0.100102 -0.0201096 
-0.0565799 0.100093 -0.0198924 
-0.0559229 0.0971929 -0.0211609 
-0.056319 0.097079 -0.0210937 
-0.0561404 0.0991657 -0.0204875 
-0.0562542 0.0992659 -0.0204129 
-0.0563706 0.0969104 -0.0211273 
-0.0567006 0.0957039 -0.02135 
-0.0562182 0.0955612 -0.0214885 
-0.0562679 0.097923 -0.0208407 
-0.0566573 0.0927503 -0.0216831 
-0.0560757 0.0946563 -0.0216374 
-0.0558908 0.0837687 -0.0214323 
-0.0566762 0.0838322 -0.0213892 
-0.0591655 0.136104 -0.00623528 
-0.0592559 0.136347 -0.00625024 
-0.0396478 0.127234 -0.00189223 
-0.0399806 0.127341 -0.00175481 
-0.061956 0.0774759 -0.0182132 
-0.0620022 0.0781213 -0.0184351 
-0.0627283 0.077803 -0.0181937 
-0.0692962 0.0933578 -0.0163492 
-0.0688948 0.0932972 -0.0163937 
-0.0694734 0.0926473 -0.0163502 
-0.0716296 0.103621 -0.0128317 
-0.0712163 0.103378 -0.0131435 
-0.0709949 0.10272 -0.0135165 
-0.0786069 0.135327 -0.0049403 
-0.0785553 0.134604 -0.00515848 
-0.0783856 0.134549 -0.00527006 
-0.0780084 0.13466 -0.00545298 
-0.0786103 0.136042 -0.00486594 
-0.0785952 0.136142 -0.00486465 
-0.0783617 0.135705 -0.0050249 
-0.078104 0.13754 -0.00512993 
-0.0784041 0.138049 -0.0050234 
0.0359282 0.0409108 -0.00240619 
0.0359348 0.0407864 -0.00228024 
0.0362487 0.0409105 -0.00229393 
0.0359881 0.0401699 -0.00157561 
0.0358144 0.0426132 -0.00379379 
0.0354159 0.0419259 -0.00340879 
0.0356681 0.0415101 -0.00305619 
0.0356134 0.0416784 -0.00319472 
0.0357044 0.0445843 -0.00512853 
0.0362749 0.0435011 -0.00426986 
0.0362308 0.0435567 -0.00431333 
0.0354315 0.0450971 -0.00548914 
0.0357727 0.0456932 -0.00574518 
0.0363661 0.0458408 -0.00570064 
0.035888 0.0450732 -0.00537476 
0.0356325 0.0472367 -0.00621254 
0.0363275 0.0465207 -0.00598505 
0.0361627 0.0489958 -0.00643269 
0.0363354 0.0477781 -0.00626681 
0.0359171 0.0501936 -0.00660093 
0.0356229 0.0497885 -0.00658885 
0.0361991 0.049835 -0.00652952 
0.0359311 0.049576 -0.00653104 
0.0356519 0.0512142 -0.0066862 
0.0358181 0.0515513 -0.00667639 
0.0360225 0.0512552 -0.00664486 
0.0361126 0.0513438 -0.00663698 
0.0353394 0.0521053 -0.00675553 
0.0355624 0.0524956 -0.00673171 
0.0359641 0.0526549 -0.00664916 
0.0362638 0.0525948 -0.0066154 
-0.0191216 0.0347367 -0.0195864 
-0.0190052 0.0345084 -0.019755 
0.0361734 0.0542265 -0.00676443 
0.035563 0.053602 -0.00693828 
-0.0697556 0.0842324 -0.0171403 
-0.0584374 0.13701 -0.00583091 
-0.0694389 0.0851756 -0.0172714 
-0.069647 0.0855721 -0.0171746 
-0.0690457 0.0859117 -0.0173763 
-0.0689015 0.0853528 -0.0174747 
-0.0694281 0.0866022 -0.0171861 
-0.0694612 0.0876332 -0.0169953 
-0.069244 0.0900945 -0.0166751 
-0.0695056 0.0885225 -0.0168359 
-0.0626873 0.0823469 -0.0192338 
-0.061778 0.082 -0.0193142 
-0.0694832 0.0922707 -0.0163561 
-0.0697303 0.0919521 -0.0163574 
-0.0592413 0.137151 -0.00616965 
-0.0625064 0.0819691 -0.0192221 
-0.0621397 0.0815194 -0.019228 
-0.019322 0.181146 -0.0234494 
-0.0646876 0.0951887 -0.0181849 
-0.0595716 0.136147 -0.00637462 
-0.0407279 0.0587127 -0.0117288 
-0.0421988 0.0928058 -0.0229041 
-0.0405776 0.106857 -0.0201404 
-0.0562329 0.0918987 -0.0218595 
-0.0558931 0.0918421 -0.0219654 
-0.0420434 0.0964317 -0.0222796 
-0.0559505 0.0908852 -0.021996 
-0.0568244 0.0932942 -0.0216082 
-0.0564905 0.0907583 -0.0218366 
-0.0567924 0.0920525 -0.0216966 
-0.0405101 0.0791655 -0.0194801 
-0.0544836 0.0742323 -0.0176556 
-0.0545838 0.0745765 -0.0179172 
-0.0525637 0.0782674 -0.0195674 
-0.0525087 0.080683 -0.0209541 
-0.0519319 0.105095 -0.0195787 
-0.0526963 0.104377 -0.0197437 
-0.0527962 0.105824 -0.0191578 
-0.0526804 0.0994638 -0.0218099 
-0.0528617 0.0985888 -0.0219817 
-0.0522258 0.100441 -0.0216269 
-0.052015 0.100261 -0.0217084 
0.00321331 0.113942 -0.0196086 
0.00395987 0.11311 -0.0199679 
-0.0756665 0.130582 -0.00746127 
-0.0751789 0.130761 -0.00759757 
-0.041503 0.0795363 -0.0196967 
-0.0440826 0.0346568 0.0411424 
-0.0433707 0.0347376 0.0412651 
-0.0428517 0.0346504 0.0403611 
-0.0426464 0.0346321 0.0401872 
-0.046039 0.110956 -0.0176465 
-0.0459316 0.110686 -0.0177928 
-0.0636905 0.0371266 -0.00790249 
-0.0638589 0.0375648 -0.00775464 
-0.0550527 0.0597938 -0.0062204 
-0.0546813 0.05982 -0.00685788 
-0.0644155 0.0393398 -0.00699023 
-0.0640224 0.0397703 -0.00699426 
-0.0537923 0.0499531 -0.00589669 
-0.0641349 0.0386386 -0.0073543 
-0.0635381 0.0391625 -0.00741169 
-0.0536704 0.0589129 -0.00772446 
-0.0538054 0.0592689 -0.00772016 
-0.0442484 0.164036 -0.00928366 
-0.0445628 0.164137 -0.00901054 
-0.0407959 0.0979018 -0.0218878 
-0.0200743 0.0901219 -0.0366132 
-0.0201041 0.0898927 -0.0367319 
-0.090906 0.116356 0.0265985 
-0.0914907 0.11708 0.0263418 
-0.0725686 0.0656019 0.00258962 
-0.0199217 0.0385247 -0.0164862 
-0.0538728 0.0617329 -0.0084556 
-0.0543429 0.0616625 -0.00776733 
-0.0540133 0.0605603 -0.00796924 
-0.0538991 0.0605064 -0.00810708 
-0.0541982 0.0627586 -0.00814475 
-0.0542814 0.0628633 -0.00803578 
-0.0544303 0.0624169 -0.00774319 
-0.0540617 0.0622619 -0.00825361 
-0.0538915 0.0637784 -0.00922427 
-0.054191 0.064068 -0.00907878 
-0.054451 0.063246 -0.00792496 
-0.0537764 0.0691575 -0.0139771 
-0.0539039 0.0655732 -0.0102092 
-0.0537544 0.0649692 -0.0097945 
-0.054282 0.0649431 -0.00946906 
-0.0545609 0.0653609 -0.00970301 
-0.0546521 0.0690476 -0.013955 
-0.0541391 0.0680319 -0.0130612 
-0.0544399 0.0677489 -0.012716 
-0.0538265 0.0673333 -0.0122558 
-0.0543247 0.0664708 -0.0109715 
-0.0540902 0.0662397 -0.0107201 
-0.0541805 0.0663133 -0.010795 
-0.055879 0.0843552 -0.0214274 
-0.0558607 0.0845595 -0.0214246 
-0.0539534 0.0705507 -0.0151696 
-0.0541983 0.0703689 -0.015049 
-0.0504369 0.0777404 -0.0189776 
-0.0564972 0.0824239 -0.0212801 
-0.0622429 0.0789394 -0.0186565 
-0.0498294 0.0757147 -0.0179804 
-0.0697513 0.0940713 -0.0162534 
-0.0619402 0.0759411 -0.017745 
-0.0717213 0.104588 -0.0123552 
-0.0717141 0.104762 -0.0122809 
-0.0690683 0.0941489 -0.0163163 
-0.0689126 0.0948311 -0.0162826 
-0.0789801 0.137255 -0.00463106 
-0.0718606 0.101067 -0.013672 
0.0276224 0.0779228 -0.0229894 
0.0280574 0.0776396 -0.0226797 
-0.0785952 0.138786 -0.0049526 
-0.0555748 0.140673 -0.00266936 
0.0345278 0.0410522 -0.00292649 
0.0349765 0.0414296 -0.00317472 
0.0350522 0.040377 -0.0021197 
0.0349771 0.040236 -0.00200199 
0.0349412 0.0424487 -0.00387217 
0.0352828 0.0426982 -0.00396696 
0.035265 0.041954 -0.00346501 
0.0347 0.0441004 -0.00498842 
0.034536 0.0440066 -0.00494626 
0.0352303 0.0440058 -0.00485591 
0.0349866 0.0460794 -0.00600176 
0.0350148 0.0448911 -0.00543102 
0.0353226 0.0450247 -0.00546509 
0.0349012 0.0469766 -0.00616802 
0.0352633 0.0468797 -0.00615944 
0.034606 0.0486929 -0.00648142 
0.0350099 0.0481996 -0.00638579 
0.0345405 0.0478039 -0.00631927 
0.0352967 0.0502166 -0.00665463 
0.0346277 0.0504973 -0.00660544 
0.0345425 0.0500741 -0.00656929 
0.0351475 0.0494183 -0.00654854 
0.0352181 0.0514609 -0.00674888 
0.034436 0.0507705 -0.00663899 
-0.0866727 0.121108 -0.00175247 
-0.0863414 0.121174 -0.00206624 
-0.0860722 0.120427 -0.00198325 
0.0352035 0.0520312 -0.00677117 
-0.0402604 0.0597357 -0.0118886 
-0.0403258 0.0594006 -0.0118075 
-0.0146033 0.103514 -0.0233562 
-0.068941 0.101894 -0.014814 
-0.0697447 0.103178 -0.0139801 
-0.0697957 0.10329 -0.0139069 
-0.069127 0.103386 -0.0142201 
-0.0694052 0.102581 -0.0143986 
-0.0698951 0.104231 -0.0134552 
-0.0695238 0.104609 -0.0134878 
-0.0619889 0.0699956 -0.0137157 
-0.0619413 0.0699025 -0.01366 
-0.0622341 0.0698194 -0.0133907 
-0.0623757 0.0693772 -0.0129229 
-0.0627173 0.0837763 -0.019182 
-0.0625537 0.0831385 -0.0192287 
-0.0639764 0.166028 -0.0601687 
-0.0641277 0.166476 -0.0602201 
-0.0624144 0.0850905 -0.0191989 
-0.056751 0.0841546 -0.0213897 
-0.0243587 0.183553 -0.011107 
-0.0242732 0.183945 -0.0123567 
-0.0561884 0.0878806 -0.0216362 
-0.0561729 0.0856953 -0.0213811 
-0.0565289 0.0859834 -0.0213548 
-0.056421 0.0896518 -0.0218504 
-0.0563991 0.0876211 -0.0215274 
-0.0494081 0.152455 -0.00483021 
-0.0494695 0.152386 -0.00477448 
-0.0568215 0.0893473 -0.021708 
-0.0543729 0.0730786 -0.0168976 
-0.0544548 0.0731996 -0.0169811 
-0.0470191 0.0997247 -0.0217342 
-0.0471158 0.0989767 -0.0218165 
-0.0538782 0.0702016 -0.0148636 
-0.0541612 0.0698251 -0.0145762 
-0.0537376 0.0734736 -0.0170274 
-0.0539412 0.0734222 -0.017042 
-0.0544315 0.0723305 -0.0164162 
-0.0544566 0.0709784 -0.0156007 
-0.0539379 0.0749411 -0.0181022 
-0.0539217 0.0746626 -0.0178979 
-0.0544048 0.076222 -0.0189525 
-0.0523581 0.0739825 -0.017023 
-0.0521004 0.0766383 -0.0188373 
-0.050502 0.0933813 -0.021754 
-0.0506151 0.0931305 -0.0217493 
-0.0502964 0.0915236 -0.021755 
-0.0519606 0.0990454 -0.0219716 
-0.0527645 0.100249 -0.0215947 
-0.052198 0.100885 -0.021506 
-0.0524006 0.0979841 -0.0220814 
-0.0523191 0.0980531 -0.0220812 
-0.052002 0.0973393 -0.0221706 
-0.0655742 0.17949 -0.0602157 
-0.0522418 0.0956473 -0.0220919 
-0.0527208 0.0963392 -0.0220875 
0.0347055 0.0831329 -0.0181701 
-0.0176958 0.0387128 -0.00894175 
-0.0180291 0.0386792 -0.00792558 
-0.0165829 0.103993 -0.0229138 
-0.0200031 0.0386738 -0.010357 
-0.0203989 0.038601 -0.00944804 
-0.0645823 0.169962 -0.0605693 
-0.0646953 0.169675 -0.0604435 
-0.0556886 0.14157 -0.00235805 
-0.0525477 0.0925138 -0.0219803 
-0.0424881 0.0951915 -0.0225644 
-0.052522 0.0920744 -0.0220338 
-0.0523787 0.0935422 -0.0218704 
-0.0524313 0.0936758 -0.0218557 
-0.0522283 0.0933592 -0.0218839 
-0.0520467 0.0951997 -0.0220123 
-0.0525197 0.0954073 -0.022002 
-0.0526989 0.0946644 -0.021875 
-0.0524957 0.0966392 -0.0221393 
-0.0524957 0.0968855 -0.0221503 
-0.0521243 0.0908809 -0.02209 
-0.0522536 0.102492 -0.0208291 
-0.0527126 0.0897185 -0.0221305 
-0.0521482 0.0904362 -0.0220786 
-0.0525928 0.0882633 -0.0219342 
-0.0524016 0.0885202 -0.0219542 
-0.0520553 0.0866426 -0.0216122 
-0.0518434 0.0869763 -0.0216389 
-0.052519 0.0852798 -0.0215559 
-0.0523333 0.0859088 -0.0215651 
-0.0521711 0.0838038 -0.0216132 
-0.0526581 0.0849871 -0.0215588 
-0.0522773 0.0748913 -0.0178174 
-0.0524856 0.0752382 -0.0181432 
-0.0526356 0.0836077 -0.0215712 
-0.0545455 0.0800721 -0.0208874 
-0.0538862 0.0809673 -0.0212644 
-0.0524442 0.0732881 -0.0165765 
-0.0525814 0.0728019 -0.0163146 
-0.0567678 0.081378 -0.021056 
-0.0544253 0.0818521 -0.0214733 
-0.00915643 0.0868245 -0.0374286 
-0.0565156 0.0811524 -0.0210521 
-0.0621261 0.0754649 -0.0175646 
0.0028067 0.104623 -0.0216695 
-0.0694611 0.0963094 -0.0160683 
-0.0623143 0.0745858 -0.0170877 
-0.0618976 0.0750742 -0.0174225 
-0.0711368 0.101776 -0.0137911 
-0.0689387 0.0963988 -0.016126 
0.0140899 0.0884572 -0.0300216 
-0.0715372 0.0998589 -0.0142431 
-0.06766 0.0834479 -0.0179771 
-0.067161 0.0824053 -0.0180477 
-0.0349634 0.0552861 -0.0105394 
-0.0347104 0.05562 -0.0105952 
-0.0783139 0.139982 -0.00503662 
-0.0787058 0.140224 -0.00475183 
0.033649 0.0403612 -0.0025704 
0.0343058 0.0403409 -0.00231025 
0.0334231 0.0427417 -0.0043434 
0.0337914 0.0421797 -0.00389496 
0.0341532 0.0421485 -0.00381235 
0.0341398 0.0421237 -0.00379889 
0.0334867 0.043804 -0.00498621 
0.0335947 0.0435108 -0.00480109 
0.0344071 0.0432102 -0.00444472 
0.0340628 0.043701 -0.00483541 
0.0338433 0.0456138 -0.00582233 
0.0339209 0.0448964 -0.00553629 
0.0342926 0.045406 -0.00571096 
0.0338143 0.0475158 -0.00621877 
0.0335653 0.047156 -0.00614436 
0.0341643 0.0469019 -0.00614821 
0.0338469 0.0485894 -0.00641089 
0.0341507 0.0477527 -0.00628853 
0.0338684 0.0478203 -0.0062741 
0.0341932 0.0497401 -0.0066213 
0.0336009 0.0500883 -0.00676049 
0.0336566 0.0511516 -0.00699053 
0.033514 0.0511758 -0.00713456 
0.0337435 0.0508825 -0.00683113 
0.0054994 0.101215 -0.0216829 
-0.0715266 0.0939564 -0.0156586 
-0.0709676 0.0938004 -0.0158777 
-0.0713481 0.0974598 -0.0151669 
-0.0713415 0.0978588 -0.0150484 
-0.0715479 0.0960802 -0.0154009 
-0.0713103 0.0954524 -0.0156067 
-0.0696676 0.106039 -0.0127866 
-0.0698934 0.10584 -0.0127553 
-0.0690367 0.103812 -0.0140916 
-0.0695907 0.103846 -0.0137841 
-0.0617189 0.0689532 -0.0127835 
-0.0617163 0.0677733 -0.0111138 
-0.0623421 0.0690714 -0.0126061 
-0.0626049 0.0677156 -0.0105576 
-0.0624588 0.0683385 -0.0115099 
-0.0352884 0.0345866 0.0213911 
-0.0352009 0.0345259 0.0213344 
-0.0209393 0.0390182 0.0366637 
-0.0214484 0.0389658 0.0367014 
-0.0558605 0.0744113 -0.0178825 
-0.0563347 0.0744363 -0.0179626 
-0.0586744 0.0916136 -0.0206341 
-0.0585685 0.0923781 -0.0205862 
-0.0543099 0.0784972 -0.0198424 
-0.0559517 0.0857349 -0.0214027 
-0.0537967 0.0771406 -0.0193252 
-0.0542214 0.0794794 -0.0204955 
-0.0540146 0.0759741 -0.0187694 
-0.0538032 0.0754108 -0.0184138 
-0.0546131 0.0777964 -0.0195786 
-0.0418906 0.0689782 -0.0165238 
-0.0417974 0.069404 -0.0167478 
-0.0533961 0.0818656 -0.0214615 
-0.0426481 0.0835167 -0.0210638 
-0.0422551 0.0832633 -0.0209654 
-0.0522782 0.0804559 -0.0208102 
-0.0523227 0.0823113 -0.0214873 
-0.0526789 0.0789188 -0.0199897 
-0.051847 0.0797383 -0.0203963 
-0.0518885 0.0816102 -0.0212758 
-0.0522282 0.0754448 -0.0182582 
-0.0523696 0.0781695 -0.0194889 
-0.0272528 0.0376615 0.0200363 
-0.0271039 0.0376997 0.0194502 
-0.0517748 0.0778104 -0.0192304 
-0.0518646 0.077722 -0.0192162 
-0.0507697 0.0978931 -0.0221436 
-0.0506656 0.0972564 -0.0221941 
-0.0504518 0.0987181 -0.0220643 
-0.0504885 0.0990393 -0.0220306 
-0.0498703 0.0993349 -0.0219702 
-0.0499758 0.0987495 -0.0220502 
-0.0507077 0.100746 -0.0217081 
-0.0508497 0.100357 -0.021825 
-0.0503543 0.100684 -0.0217106 
0.00578452 0.0895792 -0.0331351 
-0.0259494 0.0516944 -0.0266091 
0.0341088 0.0827533 -0.0185473 
-0.0231055 0.183884 -0.0119791 
-0.0237509 0.183487 -0.0112774 
-0.0230877 0.183495 -0.0115556 
0.0333584 0.0833448 -0.0188501 
0.0335309 0.0836407 -0.0187655 
0.0337358 0.0831079 -0.0186908 
0.0296551 0.044804 -0.00609799 
-0.0146588 0.164497 -0.0181132 
-0.0148436 0.164683 -0.0182776 
0.0494822 0.051324 -0.00343795 
0.0495254 0.0511406 -0.00330829 
-0.0505398 0.136634 0.0233897 
-0.0506234 0.103151 -0.0207629 
-0.0502494 0.104184 -0.0202866 
0.0337973 0.0377336 0.00171476 
0.033928 0.0379565 0.00126958 
0.0340605 0.038004 0.00125003 
-0.0506836 0.101744 -0.021398 
-0.049945 0.103179 -0.0208379 
-0.0499772 0.0969628 -0.0221934 
-0.0501184 0.102111 -0.0212939 
-0.0498691 0.0937898 -0.0217494 
-0.0505973 0.0958677 -0.0221392 
-0.0500801 0.096658 -0.0221777 
-0.0503057 0.0954323 -0.0220849 
-0.0500009 0.0943079 -0.02183 
-0.0503705 0.0945008 -0.0218418 
-0.0508046 0.105587 -0.0194626 
-0.0501551 0.104395 -0.0201835 
-0.0503164 0.104869 -0.0199042 
-0.0507872 0.106556 -0.0192624 
-0.0502184 0.106335 -0.0193616 
-0.0421541 0.165583 -0.0105893 
-0.0417771 0.166349 -0.0107397 
-0.0504631 0.108326 -0.0190281 
-0.0500758 0.107487 -0.0191586 
-0.050321 0.107743 -0.0190963 
-0.0775501 0.162226 -0.0208559 
-0.0775189 0.162371 -0.0209286 
-0.0777456 0.162144 -0.0216068 
-0.0508476 0.108838 -0.0188983 
-0.0518883 0.0731802 -0.0163967 
0.0146252 0.106451 -0.0186641 
-0.0537738 0.0819787 -0.0214769 
-0.0539768 0.0817889 -0.0214587 
-0.0526388 0.0717005 -0.0157668 
-0.0523536 0.0721705 -0.015905 
-0.056436 0.0803451 -0.0207262 
-0.0567174 0.0802118 -0.0206229 
-0.0546339 0.0832779 -0.0215485 
-0.0621578 0.176072 -0.0613246 
-0.0559299 0.0785695 -0.0199037 
-0.0620103 0.0739373 -0.0167742 
-0.0665087 0.17473 -0.0594353 
-0.0698323 0.0979407 -0.0155542 
-0.0621929 0.0733761 -0.0164059 
-0.0715305 0.0996687 -0.0143118 
-0.0710081 0.100146 -0.0144008 
-0.0696371 0.0967482 -0.0159671 
-0.0740039 0.0887734 -0.0151398 
-0.0710257 0.0970016 -0.0154347 
-0.0743686 0.0901655 -0.0148675 
-0.0745078 0.0897729 -0.0148485 
-0.0407051 0.0825746 -0.0207942 
-0.0640796 0.0817985 -0.0189358 
0.0325089 0.0389396 -0.00120224 
0.0324891 0.0394012 -0.00175602 
-0.0798011 0.139811 -0.00391046 
0.0326421 0.0407671 -0.00304285 
0.0327188 0.0402938 -0.00265088 
0.0332151 0.0406061 -0.00283239 
0.0327485 0.0423164 -0.00414954 
0.0326052 0.0429078 -0.00454196 
0.0330805 0.0415125 -0.003579 
0.0333752 0.0419401 -0.00382068 
0.032436 0.0435923 -0.0049758 
0.0324868 0.0432291 -0.00475276 
0.0328766 0.0436904 -0.00498366 
0.0331955 0.04312 -0.00461469 
0.0328472 0.0460343 -0.00600957 
0.0333418 0.0457208 -0.00585064 
0.0330758 0.0449259 -0.00562081 
0.0327924 0.0469445 -0.00615735 
0.0326513 0.0473166 -0.00619588 
0.0333105 0.0463182 -0.00601878 
0.0329514 0.0485978 -0.00646213 
0.0324729 0.0476087 -0.00623071 
0.032653 0.0478493 -0.00629372 
0.0324095 0.0491264 -0.00668608 
0.0324742 0.0494995 -0.00684774 
0.0331744 0.0492917 -0.006557 
0.0331894 0.0494645 -0.00660181 
-0.0116592 0.16393 -0.0155502 
0.0333465 0.0516131 -0.00754376 
0.0332687 0.0511714 -0.0073131 
-0.0709012 0.0932994 -0.0159526 
-0.0708984 0.0933389 -0.0159495 
-0.0628642 0.076636 -0.0179013 
-0.0628163 0.0754295 -0.0174353 
-0.0563478 0.15147 -0.00160743 
-0.0714971 0.0910359 -0.0159694 
-0.0708687 0.0913578 -0.0162075 
-0.0711705 0.0936588 -0.015817 
-0.0697977 0.106954 -0.0123218 
-0.0690937 0.106085 -0.0130677 
-0.0689669 0.10598 -0.0131815 
-0.061828 0.067318 -0.0103696 
-0.0618498 0.0675007 -0.0106402 
-0.0623648 0.0672559 -0.00998823 
-0.0626281 0.0670759 -0.00962128 
-0.0625401 0.0663582 -0.00861785 
-0.0624749 0.066437 -0.00875431 
0.0137139 0.108699 -0.0185145 
-0.0505329 0.0752929 -0.0178818 
-0.0502104 0.0749401 -0.0175377 
-0.0564237 0.0731685 -0.0171587 
-0.0557657 0.0725647 -0.0167376 
-0.0557639 0.0725886 -0.0167508 
-0.0538045 0.0889312 -0.0221693 
-0.0546989 0.0798751 -0.0208043 
-0.0543795 0.080804 -0.0212102 
-0.0417097 0.0532619 -0.0111343 
-0.0520088 0.066489 -0.0118013 
-0.0523433 0.0672731 -0.0124724 
-0.0523574 0.0663892 -0.0115571 
-0.0425739 0.0736785 -0.0182581 
-0.0425678 0.0733819 -0.0182051 
-0.0423674 0.0695773 -0.0169475 
-0.0420721 0.0752676 -0.0185443 
-0.0425536 0.0745891 -0.0184332 
-0.0422146 0.0742674 -0.0183449 
-0.066734 0.106416 -0.0140532 
-0.0666639 0.108068 -0.0134201 
-0.0751247 0.126594 -0.00812722 
-0.0751177 0.125416 -0.0080143 
-0.0577606 0.142354 -0.00283631 
-0.0474429 0.104183 -0.0206686 
-0.0300605 0.0361655 0.0235804 
-0.0285886 0.0376782 0.0210846 
-0.0296379 0.0366251 0.0226973 
-0.0300407 0.0361829 0.0235661 
-0.0294872 0.0367688 0.0225147 
0.0317781 0.0790921 -0.0197571 
-0.0492283 0.0978186 -0.0221146 
-0.0501335 0.0558711 -0.00945166 
-0.0502205 0.0558404 -0.0093775 
-0.0500739 0.0578219 -0.0100826 
-0.0497543 0.0990442 -0.0220065 
-0.00157457 0.0361809 0.0473975 
-0.050424 0.0587974 -0.0101143 
-0.0498927 0.0584859 -0.0104164 
-0.0193132 0.0340457 -0.0204409 
-0.0426814 0.0990456 -0.021521 
0.0324611 0.0810783 -0.0192551 
0.0328472 0.0809375 -0.0190966 
0.0269696 0.0510068 -0.0200283 
0.0268414 0.0516075 -0.0204077 
0.032456 0.0823796 -0.0192051 
0.0324831 0.081797 -0.0192266 
0.033056 0.0816265 -0.0189821 
0.0326366 0.0836106 -0.0191026 
0.0330736 0.0842098 -0.0189453 
0.0328919 0.0830833 -0.0190285 
0.0325247 0.0830427 -0.0191546 
-0.059348 0.0406314 -0.00823113 
0.0337187 0.0845479 -0.0186425 
-0.0504777 0.13711 0.0223226 
-0.0508805 0.137851 0.022285 
-0.0505417 0.137277 0.0222468 
-0.0510256 0.137812 0.022707 
0.0331776 0.0856257 -0.0188048 
0.0331371 0.0854479 -0.0188157 
-0.0368218 0.108553 -0.0198594 
-0.0479561 0.109965 -0.0183489 
-0.0312303 0.0348769 0.0466635 
-0.0314957 0.0348609 0.0458312 
-0.0425444 0.0962775 -0.0222754 
-0.0426271 0.096006 -0.022349 
-0.0784808 0.105901 -0.00693301 
-0.0782837 0.105349 -0.0073952 
-0.0470338 0.10291 -0.0212117 
-0.0476628 0.105476 -0.0199887 
-0.0477422 0.104729 -0.0203384 
-0.0128049 0.0360087 -0.0176028 
-0.0125756 0.0363366 -0.017317 
-0.0496731 0.10957 -0.0187025 
-0.0404435 0.0845491 -0.0214185 
-0.0497619 0.108196 -0.019068 
-0.0501769 0.109148 -0.0188133 
-0.0496379 0.106589 -0.0193483 
-0.0490019 0.107195 -0.0192418 
-0.0489023 0.107854 -0.019143 
-0.0497556 0.104812 -0.0200018 
-0.0490491 0.105791 -0.0195887 
-0.0492582 0.104112 -0.0204258 
-0.048885 0.105248 -0.0198462 
-0.0488808 0.104348 -0.020335 
-0.0490862 0.0983369 -0.0220619 
-0.0490946 0.103749 -0.0206232 
-0.050355 0.0555618 -0.00919702 
-0.049837 0.0549429 -0.0093655 
-0.0494927 0.0967808 -0.0221809 
-0.0519357 0.0715293 -0.0155779 
-0.0521867 0.154251 -0.0039547 
-0.0543656 0.0829064 -0.0215527 
-0.0522308 0.0706339 -0.0151745 
-0.0525254 0.0697383 -0.0144371 
-0.056173 0.0787298 -0.0199609 
-0.0544484 0.0846763 -0.0214966 
-0.066935 0.176115 -0.0593534 
